-0.377968	0.569052	0.163978
-0.453413	0.514240	0.163978
-0.558813	0.437413	0.163977
-0.716639	0.322058	0.163976
-0.979338	0.129636	0.163975
-1.504292	-0.255510	0.163972
-3.079028	-1.412111	0.163962
-0.049623	1.015645	0.160107
-0.056076	1.020378	0.160107
-0.063087	1.025587	0.160107
-0.070740	1.031345	0.160107
-0.079136	1.037736	0.160107
-0.088401	1.044866	0.160107
-0.098688	1.052865	0.160107
-0.110190	1.061896	0.160107
-0.123149	1.072165	0.160107
-0.137880	1.083936	0.160107
-0.154790	1.097556	0.160107
-0.174426	1.113487	0.160107
-0.197531	1.132358	0.160107
-0.225148	1.155051	0.160107
-0.258780	1.182840	0.160107
-0.300685	1.217637	0.160107
-0.354409	1.262443	0.160106
-0.425862	1.322264	0.160106
-0.525687	1.406112	0.160106
-0.675166	1.532010	0.160105
-0.923975	1.742023	0.160104
-1.208888	1.982416	0.150219
-1.208885	1.981535	0.120480
-1.208883	1.981241	0.090774
-1.208880	1.981532	0.061067
-1.208877	1.982409	0.031328
-1.208874	1.983875	0.001525
-1.208871	1.985934	-0.028375
-1.208868	1.988591	-0.058405
-1.208865	1.991854	-0.088599
-1.208862	1.995731	-0.118992
-1.208859	2.000234	-0.149617
-0.064685	0.991007	0.169040
-0.071970	0.994726	0.169040
-0.079884	0.998820	0.169040
-0.088523	1.003344	0.169040
-0.098002	1.008366	0.169040
-0.108462	1.013969	0.169040
-0.120075	1.020256	0.169040
-0.133059	1.027353	0.169040
-0.147689	1.035422	0.169040
-0.164318	1.044672	0.169040
-0.183408	1.055376	0.169040
-0.205576	1.067895	0.169040
-0.231660	1.082724	0.169040
-0.262837	1.100558	0.169040
-0.300806	1.122396	0.169040
-0.348113	1.149741	0.169040
-0.408764	1.184952	0.169040
-0.489431	1.231964	0.169040
-0.602128	1.297858	0.169040
-0.770886	1.396799	0.169040
-1.051788	1.561847	0.169040
-1.196573	1.646392	0.149646
-1.196571	1.645785	0.120194
-1.196569	1.645582	0.090774
-1.196567	1.645784	0.061354
-1.196565	1.646389	0.031902
-1.196563	1.647400	0.002387
-1.196561	1.648820	-0.027225
-1.196559	1.650652	-0.056966
-1.196557	1.652902	-0.086869
-1.196555	1.655575	-0.116968
-1.196552	1.658680	-0.147299
-0.075933	0.963755	0.175711
-0.083839	0.966353	0.175711
-0.092429	0.969213	0.175711
-0.101805	0.972373	0.175711
-0.112092	0.975881	0.175711
-0.123443	0.979796	0.175711
-0.136047	0.984187	0.175711
-0.150138	0.989144	0.175711
-0.166016	0.994781	0.175711
-0.184063	1.001243	0.175711
-0.204781	1.008720	0.175711
-0.228838	1.017465	0.175710
-0.257146	1.027824	0.175710
-0.290982	1.040282	0.175710
-0.332188	1.055537	0.175710
-0.383529	1.074639	0.175710
-0.449350	1.099236	0.175710
-0.536895	1.132075	0.175710
-0.659199	1.178105	0.175710
-0.842343	1.247219	0.175710
-1.147188	1.362510	0.175709
-1.381469	1.450874	0.158254
-1.381477	1.450430	0.124493
-1.381484	1.450284	0.090769
-1.381491	1.450436	0.057044
-1.381499	1.450886	0.023282
-1.381506	1.451636	-0.010553
-1.381513	1.452688	-0.044499
-1.381521	1.454043	-0.078594
-1.381528	1.455707	-0.112875
-1.381536	1.457684	-0.147381
-1.381543	1.459978	-0.182153
-0.083065	0.934687	0.179940
-0.091365	0.936089	0.179940
-0.100382	0.937632	0.179940
-0.110225	0.939338	0.179940
-0.121025	0.941232	0.179940
-0.132942	0.943344	0.179940
-0.146173	0.945714	0.179940
-0.160967	0.948390	0.179940
-0.177635	0.951432	0.179940
-0.196581	0.954920	0.179940
-0.218331	0.958955	0.179940
-0.243587	0.963675	0.179940
-0.273306	0.969266	0.179940
-0.308828	0.975990	0.179940
-0.352087	0.984224	0.179940
-0.405986	0.994533	0.179940
-0.475087	1.007809	0.179940
-0.566995	1.025533	0.179940
-0.695395	1.050377	0.179940
-0.887667	1.087680	0.179940
-1.207710	1.149907	0.179940
-1.847299	1.274467	0.179940
-2.050532	1.313819	0.140049
-2.050531	1.313707	0.090750
-2.050530	1.313819	0.041450
-2.050530	1.314155	-0.007903
-2.050529	1.314716	-0.057363
-2.050528	1.315504	-0.106984
-2.050527	1.316520	-0.156821
-2.050526	1.317768	-0.206931
-2.050525	1.319251	-0.257370
-2.050524	1.320974	-0.308196
-0.085858	0.904634	0.181597
-0.094313	0.904799	0.181597
-0.103498	0.904982	0.181597
-0.113524	0.905184	0.181597
-0.124524	0.905408	0.181597
-0.136662	0.905658	0.181597
-0.150139	0.905938	0.181597
-0.165208	0.906255	0.181597
-0.182186	0.906614	0.181597
-0.201485	0.907027	0.181597
-0.223639	0.907504	0.181597
-0.249364	0.908062	0.181597
-0.279636	0.908724	0.181597
-0.315817	0.909519	0.181597
-0.359880	0.910493	0.181597
-0.414781	0.911712	0.181597
-0.485167	0.913283	0.181597
-0.578783	0.915379	0.181597
-0.709569	0.918318	0.181597
-0.905415	0.922730	0.181597
-1.231407	0.930091	0.181597
-1.882884	0.944824	0.181597
-2.053490	0.948654	0.140118
-2.053490	0.948641	0.090749
-2.053489	0.948654	0.041381
-2.053489	0.948693	-0.008041
-2.053489	0.948758	-0.057570
-2.053489	0.948850	-0.107260
-2.053489	0.948968	-0.157168
-2.053489	0.949113	-0.207348
-2.053489	0.949285	-0.257857
-2.053489	0.949486	-0.308754
-0.084228	0.874466	0.180630
-0.092592	0.873391	0.180630
-0.101679	0.872207	0.180630
-0.111598	0.870900	0.180630
-0.122482	0.869448	0.180630
-0.134490	0.867828	0.180630
-0.147824	0.866010	0.180630
-0.162732	0.863959	0.180630
-0.179529	0.861626	0.180630
-0.198622	0.858952	0.180630
-0.220540	0.855857	0.180629
-0.245991	0.852238	0.180629
-0.275940	0.847951	0.180629
-0.311736	0.842795	0.180629
-0.355329	0.836482	0.180629
-0.409644	0.828577	0.180629
-0.479280	0.818397	0.180629
-0.571896	0.804807	0.180629
-0.701286	0.785757	0.180629
-0.895040	0.757155	0.180628
-1.217546	0.709441	0.180628
-1.862046	0.613935	0.180627
-2.054796	0.585551	0.140148
-2.054797	0.585636	0.090749
-2.054797	0.585550	0.041351
-2.054798	0.585294	-0.008102
-2.054799	0.584866	-0.057661
-2.054799	0.584265	-0.107383
-2.054800	0.583489	-0.157321
-2.054801	0.582538	-0.207532
-2.054801	0.581407	-0.258073
-2.054802	0.580093	-0.309002
-0.078247	0.845050	0.177083
-0.086281	0.842765	0.177083
-0.095009	0.840249	0.177083
-0.104537	0.837469	0.177083
-0.114991	0.834383	0.177083
-0.126525	0.830940	0.177083
-0.139333	0.827077	0.177083
-0.153652	0.822716	0.177083
-0.169786	0.817758	0.177083
-0.188126	0.812073	0.177083
-0.209179	0.805496	0.177083
-0.233626	0.797804	0.177083
-0.262392	0.788691	0.177083
-0.296775	0.777732	0.177084
-0.338649	0.764313	0.177084
-0.390821	0.747510	0.177084
-0.457710	0.725872	0.177084
-0.546673	0.696984	0.177084
-0.670962	0.656492	0.177085
-0.857080	0.595692	0.177085
-1.166884	0.494266	0.177086
-1.786030	0.291237	0.177088
-3.643794	-0.318620	0.177093
-0.068060	0.817241	0.171042
-0.075532	0.813811	0.171042
-0.083649	0.810036	0.171042
-0.092509	0.805865	0.171042
-0.102231	0.801234	0.171042
-0.112957	0.796067	0.171042
-0.124868	0.790271	0.171042
-0.138184	0.783727	0.171042
-0.153188	0.776286	0.171041
-0.170243	0.767756	0.171041
-0.189821	0.757887	0.171041
-0.212555	0.746344	0.171041
-0.239307	0.732670	0.171041
-0.271281	0.716226	0.171041
-0.310220	0.696090	0.171041
-0.358737	0.670876	0.171041
-0.420937	0.638409	0.171040
-0.503665	0.595062	0.171040
-0.619241	0.534305	0.171040
-0.792306	0.443078	0.171039
-1.080372	0.290902	0.171038
-1.656034	-0.013698	0.171036
-3.383000	-0.928478	0.171029
-0.053985	0.791827	0.162695
-0.060680	0.787352	0.162695
-0.067952	0.782426	0.162695
-0.075891	0.776982	0.162695
-0.084601	0.770939	0.162695
-0.094212	0.764197	0.162695
-0.104884	0.756634	0.162695
-0.116815	0.748095	0.162695
-0.130259	0.738385	0.162695
-0.145539	0.727255	0.162695
-0.163081	0.714376	0.162695
-0.183451	0.699313	0.162695
-0.207420	0.681469	0.162695
-0.236070	0.660011	0.162695
-0.270960	0.633735	0.162696
-0.314432	0.600832	0.162696
-0.370166	0.558463	0.162696
-0.444294	0.501895	0.162696
-0.547857	0.422607	0.162697
-0.702940	0.303551	0.162698
-0.961087	0.104942	0.162699
-1.477006	-0.292633	0.162701
-3.025118	-1.486925	0.162708
-0.036404	0.769559	0.152268
-0.042127	0.764168	0.152268
-0.048345	0.758234	0.152268
-0.055132	0.751677	0.152268
-0.062579	0.744397	0.152268
-0.070796	0.736275	0.152268
-0.079919	0.727163	0.152268
-0.090119	0.716876	0.152268
-0.101613	0.705180	0.152268
-0.114677	0.691771	0.152268
-0.129674	0.676258	0.152268
-0.147088	0.658112	0.152268
-0.167580	0.636616	0.152268
-0.192072	0.610767	0.152267
-0.221899	0.579114	0.152267
-0.259063	0.539479	0.152267
-0.306708	0.488442	0.152267
-0.370078	0.420302	0.152266
-0.458607	0.324796	0.152266
-0.591173	0.181393	0.152265
-0.811825	-0.057816	0.152264
-1.252763	-0.536615	0.152262
-2.575498	-1.974486	0.152255
-0.015848	0.751053	0.140077
-0.020436	0.744901	0.140077
-0.025420	0.738129	0.140077
-0.030861	0.730645	0.140077
-0.036831	0.722337	0.140077
-0.043418	0.713068	0.140077
-0.050731	0.702669	0.140077
-0.058908	0.690929	0.140077
-0.068122	0.677580	0.140077
-0.078595	0.662278	0.140077
-0.090617	0.644573	0.140077
-0.104578	0.623864	0.140077
-0.121005	0.599333	0.140077
-0.140640	0.569832	0.140077
-0.164551	0.533707	0.140077
-0.194344	0.488472	0.140077
-0.232541	0.430225	0.140077
-0.283343	0.352458	0.140077
-0.354317	0.243455	0.140077
-0.460596	0.079786	0.140077
-0.637502	-0.193240	0.140077
-0.991039	-0.739756	0.140077
-2.051752	-2.381240	0.140077
0.007116	0.736881	0.126458
0.003797	0.730146	0.126458
0.000190	0.722732	0.126458
-0.003747	0.714539	0.126458
-0.008066	0.705444	0.126458
-0.012832	0.695297	0.126458
-0.018124	0.683913	0.126458
-0.024041	0.671061	0.126458
-0.030707	0.656447	0.126458
-0.038285	0.639696	0.126458
-0.046984	0.620313	0.126458
-0.057085	0.597642	0.126458
-0.068971	0.570787	0.126458
-0.083177	0.538492	0.126458
-0.100478	0.498946	0.126458
-0.122035	0.449427	0.126458
-0.149671	0.385664	0.126457
-0.186427	0.300533	0.126457
-0.237778	0.181212	0.126457
-0.314670	0.002053	0.126456
-0.442655	-0.296801	0.126456
-0.698409	-0.894977	0.126454
-1.465603	-2.691292	0.126449
0.031805	0.727408	0.111817
0.029849	0.720283	0.111817
0.027723	0.712440	0.111817
0.025403	0.703773	0.111817
0.022858	0.694151	0.111817
0.020049	0.683416	0.111817
0.016931	0.671373	0.111817
0.013444	0.657777	0.111817
0.009515	0.642317	0.111817
0.005050	0.624595	0.111817
-0.000076	0.604090	0.111817
-0.006029	0.580106	0.111817
-0.013034	0.551694	0.111817
-0.021406	0.517528	0.111817
-0.031602	0.475689	0.111817
-0.044306	0.423300	0.111817
-0.060594	0.355838	0.111817
-0.082257	0.265768	0.111818
-0.112522	0.139520	0.111818
-0.157843	-0.050050	0.111818
-0.233285	-0.366293	0.111819
-0.384063	-0.999362	0.111820
-0.836527	-2.901179	0.111823
0.058283	0.722884	0.096112
0.057789	0.715573	0.096113
0.057252	0.707525	0.096113
0.056667	0.698631	0.096113
0.056024	0.688758	0.096113
0.055315	0.677743	0.096113
0.054527	0.665385	0.096113
0.053647	0.651433	0.096113
0.052655	0.635569	0.096113
0.051527	0.617385	0.096113
0.050233	0.596344	0.096113
0.048729	0.571733	0.096114
0.046961	0.542579	0.096114
0.044847	0.507520	0.096114
0.042272	0.464588	0.096114
0.039064	0.410830	0.096115
0.034951	0.341606	0.096115
0.029481	0.249182	0.096116
0.021839	0.119636	0.096117
0.010394	-0.074887	0.096118
-0.008656	-0.399393	0.096121
-0.046729	-1.049005	0.096125
-0.160982	-3.000520	0.096139
0.084272	0.723681	0.080694
0.085213	0.716403	0.080694
0.086236	0.708392	0.080694
0.087353	0.699538	0.080694
0.088577	0.689709	0.080694
0.089929	0.678744	0.080694
0.091430	0.666442	0.080694
0.093108	0.652553	0.080693
0.094998	0.636761	0.080693
0.097147	0.618658	0.080693
0.099614	0.597713	0.080693
0.102478	0.573213	0.080693
0.105849	0.544192	0.080693
0.109878	0.509292	0.080692
0.114784	0.466555	0.080692
0.120897	0.413041	0.080692
0.128735	0.344133	0.080691
0.139159	0.252132	0.080691
0.153722	0.123180	0.080690
0.175529	-0.070445	0.080688
0.211828	-0.393442	0.080686
0.284370	-1.039985	0.080682
0.502015	-2.981903	0.080669
0.109772	0.729586	0.065577
0.112122	0.722550	0.065577
0.114675	0.714806	0.065577
0.117461	0.706248	0.065577
0.120518	0.696747	0.065577
0.123892	0.686147	0.065577
0.127637	0.674256	0.065577
0.131825	0.660831	0.065577
0.136544	0.645566	0.065577
0.141907	0.628067	0.065577
0.148064	0.607820	0.065578
0.155214	0.584138	0.065578
0.163627	0.556085	0.065578
0.173682	0.522350	0.065578
0.185928	0.481039	0.065578
0.201186	0.429311	0.065579
0.220748	0.362702	0.065579
0.246765	0.273771	0.065580
0.283113	0.149121	0.065581
0.337542	-0.038044	0.065582
0.428141	-0.350263	0.065584
0.609198	-0.975233	0.065588
1.152421	-2.852357	0.065601
0.134039	0.740430	0.051180
0.137728	0.733841	0.051180
0.141737	0.726588	0.051180
0.146113	0.718573	0.051180
0.150914	0.709675	0.051180
0.156211	0.699748	0.051180
0.162093	0.688610	0.051180
0.168670	0.676037	0.051180
0.176079	0.661740	0.051180
0.184502	0.645352	0.051180
0.194171	0.626390	0.051180
0.205398	0.604210	0.051180
0.218609	0.577937	0.051179
0.234400	0.546343	0.051179
0.253630	0.507653	0.051179
0.277590	0.459208	0.051179
0.308307	0.396827	0.051179
0.349162	0.313542	0.051178
0.406238	0.196807	0.051178
0.491704	0.021531	0.051177
0.633960	-0.270847	0.051176
0.918234	-0.856063	0.051174
1.770992	-2.613486	0.051168
0.156391	0.755871	0.037929
0.161315	0.749917	0.037929
0.166665	0.743363	0.037929
0.172505	0.736120	0.037930
0.178912	0.728080	0.037930
0.185982	0.719109	0.037930
0.193831	0.709046	0.037930
0.202608	0.697684	0.037930
0.212497	0.684765	0.037930
0.223737	0.669956	0.037930
0.236641	0.652821	0.037930
0.251625	0.632779	0.037930
0.269256	0.609038	0.037930
0.290330	0.580488	0.037931
0.315994	0.545526	0.037931
0.347971	0.501749	0.037931
0.388967	0.445378	0.037932
0.443493	0.370115	0.037932
0.519669	0.264624	0.037933
0.633739	0.106227	0.037934
0.823611	-0.158004	0.037935
1.203061	-0.686915	0.037939
2.341522	-2.275523	0.037949
0.175627	0.774863	0.026524
0.181613	0.769691	0.026524
0.188117	0.763997	0.026524
0.195217	0.757704	0.026524
0.203006	0.750719	0.026524
0.211601	0.742926	0.026524
0.221144	0.734183	0.026524
0.231814	0.724312	0.026524
0.243837	0.713088	0.026524
0.257502	0.700223	0.026524
0.273190	0.685336	0.026524
0.291406	0.667924	0.026524
0.312841	0.647299	0.026524
0.338461	0.622495	0.026524
0.369662	0.592121	0.026524
0.408538	0.554089	0.026524
0.458379	0.505115	0.026524
0.524668	0.439729	0.026524
0.617278	0.348082	0.026524
0.755957	0.210470	0.026524
0.986793	-0.019086	0.026524
1.448105	-0.478590	0.026524
2.832177	-1.858728	0.026524
0.192798	0.798730	0.016338
0.199733	0.794539	0.016338
0.207267	0.789926	0.016338
0.215491	0.784827	0.016338
0.224514	0.779168	0.016338
0.234471	0.772854	0.016338
0.245526	0.765770	0.016338
0.257886	0.757773	0.016338
0.271813	0.748679	0.016338
0.287643	0.738256	0.016338
0.305816	0.726194	0.016338
0.326918	0.712087	0.016338
0.351749	0.695376	0.016338
0.381429	0.675280	0.016338
0.417573	0.650670	0.016338
0.462608	0.619856	0.016338
0.520345	0.580176	0.016338
0.597138	0.527199	0.016338
0.704424	0.452942	0.016339
0.819494	0.373391	0.020593
0.819493	0.374392	0.038220
0.819492	0.375106	0.055789
0.819491	0.375533	0.073320
0.819489	0.375676	0.090832
0.819488	0.375534	0.108344
0.819487	0.375108	0.125875
0.819486	0.374395	0.143443
0.819484	0.373395	0.161070
0.819483	0.372104	0.178773
0.819482	0.370518	0.196572
0.819480	0.368634	0.214488
0.819479	0.366447	0.232542
0.205815	0.824894	0.008614
0.213469	0.821780	0.008614
0.221784	0.818351	0.008614
0.230861	0.814563	0.008614
0.240819	0.810357	0.008614
0.251808	0.805665	0.008614
0.264009	0.800400	0.008614
0.277651	0.794457	0.008614
0.293021	0.787700	0.008614
0.310492	0.779953	0.008614
0.330549	0.770990	0.008614
0.353838	0.760506	0.008614
0.381243	0.748088	0.008613
0.413998	0.733153	0.008613
0.453888	0.714865	0.008613
0.503591	0.691966	0.008613
0.567311	0.662479	0.008613
0.652062	0.623110	0.008613
0.770463	0.567929	0.008612
0.821320	0.544742	0.020414
0.821320	0.545418	0.038084
0.821319	0.545900	0.055695
0.821318	0.546188	0.073269
0.821317	0.546284	0.090823
0.821317	0.546188	0.108378
0.821316	0.545900	0.125951
0.821315	0.545419	0.143563
0.821314	0.544744	0.161232
0.821314	0.543872	0.178978
0.821313	0.542802	0.196821
0.821312	0.541530	0.214781
0.821311	0.540053	0.232879
0.214629	0.852388	0.003394
0.222769	0.850405	0.003394
0.231613	0.848222	0.003394
0.241267	0.845809	0.003394
0.251859	0.843130	0.003394
0.263547	0.840142	0.003394
0.276524	0.836790	0.003394
0.291033	0.833005	0.003394
0.307381	0.828701	0.003394
0.325963	0.823768	0.003394
0.347295	0.818060	0.003394
0.372065	0.811384	0.003394
0.401212	0.803475	0.003394
0.436051	0.793964	0.003394
0.478478	0.782317	0.003394
0.531341	0.767734	0.003394
0.599114	0.748956	0.003394
0.689254	0.723884	0.003394
0.815185	0.688742	0.003394
0.819580	0.688018	0.020585
0.819579	0.688422	0.038213
0.819579	0.688709	0.055785
0.819578	0.688882	0.073317
0.819578	0.688939	0.090831
0.819577	0.688882	0.108345
0.819577	0.688709	0.125878
0.819576	0.688422	0.143449
0.819576	0.688018	0.161078
0.819575	0.687497	0.178783
0.819575	0.686858	0.196585
0.819574	0.686098	0.214503
0.819574	0.685216	0.232560
0.219597	0.882962	0.000441
0.228012	0.882236	0.000441
0.237154	0.881437	0.000441
0.247134	0.880555	0.000441
0.258083	0.879575	0.000441
0.270164	0.878481	0.000441
0.283579	0.877255	0.000441
0.298577	0.875870	0.000441
0.315476	0.874295	0.000441
0.334684	0.872491	0.000441
0.356735	0.870402	0.000441
0.382341	0.867959	0.000441
0.412471	0.865066	0.000441
0.448484	0.861586	0.000441
0.492341	0.857325	0.000441
0.546986	0.851990	0.000441
0.617043	0.845119	0.000441
0.710222	0.835946	0.000441
0.820000	0.825134	0.002824
0.820000	0.825319	0.020540
0.820000	0.825462	0.038178
0.820000	0.825563	0.055759
0.820000	0.825624	0.073301
0.819999	0.825645	0.090825
0.819999	0.825624	0.108349
0.819999	0.825563	0.125892
0.819999	0.825461	0.143473
0.819999	0.825318	0.161111
0.819999	0.825134	0.178826
0.819998	0.824907	0.196638
0.819998	0.824638	0.214567
0.819998	0.824326	0.232633
0.220020	0.912299	0.000196
0.228458	0.912780	0.000196
0.237626	0.913310	0.000196
0.247633	0.913896	0.000196
0.258612	0.914545	0.000196
0.270727	0.915270	0.000196
0.284179	0.916084	0.000196
0.299219	0.917002	0.000196
0.316165	0.918046	0.000196
0.335426	0.919243	0.000196
0.357538	0.920628	0.000196
0.383215	0.922248	0.000196
0.413428	0.924166	0.000196
0.449541	0.926474	0.000196
0.493520	0.929299	0.000196
0.548317	0.932838	0.000196
0.618569	0.937393	0.000196
0.712006	0.943476	0.000196
0.819651	0.950484	0.002872
0.819651	0.950363	0.020578
0.819651	0.950268	0.038208
0.819651	0.950201	0.055781
0.819651	0.950161	0.073316
0.819651	0.950147	0.090831
0.819651	0.950161	0.108347
0.819652	0.950201	0.125882
0.819652	0.950268	0.143455
0.819652	0.950363	0.161085
0.819652	0.950485	0.178792
0.819652	0.950635	0.196596
0.819652	0.950812	0.214516
0.819652	0.951019	0.232575
0.215935	0.943049	0.002613
0.224147	0.944795	0.002613
0.233070	0.946717	0.002613
0.242809	0.948841	0.002613
0.253495	0.951200	0.002613
0.265286	0.953830	0.002613
0.278378	0.956782	0.002613
0.293016	0.960114	0.002613
0.309509	0.963903	0.002613
0.328255	0.968246	0.002614
0.349776	0.973272	0.002614
0.374766	0.979150	0.002614
0.404172	0.986113	0.002614
0.439319	0.994486	0.002614
0.482122	1.004740	0.002614
0.535454	1.017579	0.002614
0.603827	1.034112	0.002614
0.694766	1.056185	0.002614
0.818773	1.086372	0.002970
0.818774	1.085919	0.020656
0.818774	1.085567	0.038265
0.818774	1.085317	0.055817
0.818775	1.085167	0.073332
0.818775	1.085117	0.090827
0.818776	1.085167	0.108322
0.818776	1.085318	0.125836
0.818776	1.085568	0.143389
0.818777	1.085920	0.160999
0.818777	1.086375	0.178685
0.818777	1.086932	0.196468
0.818778	1.087595	0.214368
0.818778	1.088364	0.232405
0.207614	0.971688	0.007550
0.215367	0.974613	0.007550
0.223790	0.977832	0.007550
0.232985	0.981389	0.007550
0.243073	0.985338	0.007550
0.254204	0.989744	0.007550
0.266564	0.994687	0.007550
0.280382	1.000267	0.007550
0.295952	1.006613	0.007550
0.313650	1.013886	0.007550
0.333967	1.022302	0.007550
0.357558	1.032146	0.007550
0.385319	1.043807	0.007549
0.418499	1.057829	0.007549
0.458908	1.075001	0.007549
0.509255	1.096502	0.007549
0.573803	1.124189	0.007549
0.659653	1.161155	0.007549
0.779592	1.212968	0.007548
0.903477	1.266394	0.012749
0.903478	1.265700	0.032343
0.903479	1.265206	0.051873
0.903479	1.264910	0.071361
0.903480	1.264812	0.090828
0.903481	1.264911	0.110295
0.903482	1.265208	0.129784
0.903483	1.265704	0.149315
0.903484	1.266399	0.168909
0.903485	1.267295	0.188589
0.903486	1.268396	0.208376
0.903486	1.269704	0.228294
0.903487	1.271223	0.248364
0.195247	0.998276	0.014883
0.202317	1.002294	0.014883
0.209998	1.006717	0.014883
0.218382	1.011605	0.014883
0.227582	1.017032	0.014883
0.237732	1.023085	0.014883
0.249003	1.029877	0.014883
0.261604	1.037545	0.014883
0.275802	1.046263	0.014883
0.291941	1.056257	0.014883
0.310468	1.067821	0.014883
0.331981	1.081347	0.014883
0.357296	1.097369	0.014884
0.387553	1.116637	0.014884
0.424402	1.140231	0.014884
0.470314	1.169775	0.014884
0.529175	1.207818	0.014884
0.607462	1.258611	0.014885
0.716834	1.329803	0.014885
0.880613	1.436701	0.014886
0.902607	1.450152	0.032407
0.902608	1.449408	0.051917
0.902609	1.448963	0.071385
0.902610	1.448816	0.090832
0.902611	1.448966	0.110279
0.902613	1.449413	0.129747
0.902614	1.450159	0.149257
0.902615	1.451205	0.168831
0.902616	1.452555	0.188491
0.902617	1.454212	0.208258
0.902618	1.456182	0.228155
0.902619	1.458468	0.248204
0.179187	1.022050	0.024408
0.185370	1.027046	0.024408
0.192088	1.032546	0.024408
0.199421	1.038624	0.024408
0.207466	1.045371	0.024408
0.216343	1.052898	0.024408
0.226200	1.061343	0.024408
0.237221	1.070877	0.024408
0.249638	1.081717	0.024408
0.263752	1.094144	0.024408
0.279955	1.108522	0.024407
0.298770	1.125340	0.024407
0.320909	1.145262	0.024407
0.347371	1.169219	0.024407
0.379597	1.198556	0.024407
0.419750	1.235290	0.024407
0.471228	1.282593	0.024406
0.539695	1.345747	0.024406
0.635347	1.434267	0.024405
0.778582	1.567182	0.024404
0.901516	1.680895	0.032477
0.901518	1.679840	0.051962
0.901520	1.679209	0.071404
0.901522	1.679000	0.090826
0.901524	1.679213	0.110247
0.901526	1.679849	0.129690
0.901528	1.680908	0.149175
0.901529	1.682395	0.168724
0.901531	1.684312	0.188358
0.901533	1.686666	0.208099
0.901535	1.689462	0.227970
0.901537	1.692709	0.247994
0.159902	1.042321	0.035845
0.165020	1.048151	0.035845
0.170580	1.054568	0.035845
0.176649	1.061660	0.035845
0.183309	1.069534	0.035845
0.190657	1.078317	0.035845
0.198816	1.088172	0.035845
0.207938	1.099297	0.035845
0.218216	1.111947	0.035845
0.229899	1.126448	0.035845
0.243311	1.143226	0.035845
0.258885	1.162851	0.035845
0.277210	1.186098	0.035846
0.299114	1.214054	0.035846
0.325788	1.248288	0.035846
0.359024	1.291154	0.035846
0.401634	1.346352	0.035847
0.458307	1.420048	0.035847
0.537482	1.523343	0.035848
0.656043	1.678444	0.035849
0.853391	1.937175	0.035851
0.900019	1.997168	0.052041
0.900021	1.996281	0.071449
0.900023	1.995988	0.090835
0.900026	1.996289	0.110222
0.900028	1.997184	0.129630
0.900030	1.998675	0.149080
0.900032	2.000768	0.168594
0.900035	2.003467	0.188193
0.900037	2.006780	0.207899
0.900039	2.010717	0.227734
0.900042	2.015287	0.247722
0.138621	1.058094	0.048470
0.142564	1.064573	0.048470
0.146847	1.071705	0.048470
0.151523	1.079586	0.048470
0.156653	1.088336	0.048470
0.162314	1.098097	0.048470
0.168600	1.109048	0.048470
0.175627	1.121411	0.048470
0.183545	1.135469	0.048470
0.192545	1.151584	0.048470
0.202877	1.170229	0.048470
0.214875	1.192038	0.048470
0.228993	1.217873	0.048470
0.245866	1.248940	0.048470
0.266416	1.286984	0.048470
0.292020	1.334621	0.048470
0.324846	1.395962	0.048470
0.368505	1.477860	0.048470
0.429500	1.592652	0.048470
0.520836	1.765015	0.048470
0.672869	2.052542	0.048470
0.708115	2.117930	0.060974
0.708115	2.116941	0.075909
0.708114	2.116611	0.090828
0.708113	2.116940	0.105748
0.708113	2.117929	0.120683
0.708112	2.119580	0.135651
0.708112	2.121899	0.150667
0.708111	2.124890	0.165749
0.708110	2.128563	0.180914
0.708110	2.132928	0.196178
0.708109	2.137997	0.211559
0.114674	1.069867	0.062672
0.117294	1.076830	0.062672
0.120141	1.084495	0.062672
0.123249	1.092965	0.062672
0.126658	1.102369	0.062672
0.130420	1.112860	0.062672
0.134597	1.124629	0.062672
0.139268	1.137917	0.062672
0.144530	1.153026	0.062672
0.150511	1.170345	0.062672
0.157378	1.190384	0.062672
0.165351	1.213824	0.062672
0.174733	1.241589	0.062672
0.185947	1.274979	0.062672
0.199604	1.315867	0.062672
0.216620	1.367065	0.062672
0.238436	1.432991	0.062672
0.267451	1.521011	0.062672
0.307987	1.644383	0.062672
0.368687	1.829630	0.062672
0.463526	2.119581	0.063105
0.463525	2.117929	0.072360
0.463525	2.116940	0.081596
0.463525	2.116611	0.090821
0.463525	2.116941	0.100047
0.463525	2.117930	0.109282
0.463524	2.119582	0.118538
0.463524	2.121901	0.127823
0.463524	2.124893	0.137150
0.463524	2.128567	0.146527
0.463524	2.132932	0.155965
0.463523	2.138001	0.165476
0.088601	1.076886	0.078130
0.089781	1.084138	0.078130
0.091064	1.092121	0.078130
0.092463	1.100943	0.078130
0.093999	1.110736	0.078130
0.095694	1.121662	0.078129
0.097576	1.133920	0.078129
0.099680	1.147759	0.078129
0.102050	1.163494	0.078129
0.104745	1.181531	0.078129
0.107838	1.202402	0.078129
0.111430	1.226813	0.078129
0.115657	1.255730	0.078129
0.120709	1.290504	0.078128
0.126861	1.333088	0.078128
0.134527	1.386409	0.078128
0.144354	1.455069	0.078127
0.157425	1.546739	0.078127
0.175686	1.675228	0.078126
0.203031	1.868156	0.078124
0.238770	2.120455	0.078806
0.238770	2.118803	0.082813
0.238770	2.117814	0.086810
0.238770	2.117485	0.090804
0.238770	2.117815	0.094797
0.238770	2.118806	0.098795
0.238771	2.120459	0.102801
0.238771	2.122780	0.106821
0.238771	2.125775	0.110857
0.238771	2.129452	0.114916
0.238771	2.133821	0.119002
0.238771	2.138894	0.123119
0.062642	1.078538	0.093525
0.062389	1.085859	0.093525
0.062113	1.093916	0.093525
0.061813	1.102821	0.093525
0.061484	1.112707	0.093525
0.061120	1.123735	0.093525
0.060716	1.136108	0.093525
0.060265	1.150077	0.093525
0.059756	1.165960	0.093525
0.059178	1.184167	0.093525
0.058515	1.205234	0.093525
0.057744	1.229875	0.093526
0.056837	1.259065	0.093526
0.055753	1.294167	0.093526
0.054433	1.337152	0.093526
0.052789	1.390976	0.093527
0.050680	1.460285	0.093527
0.047876	1.552822	0.093528
0.043958	1.682528	0.093529
0.038091	1.877290	0.093530
0.030793	2.119577	0.093359
0.030793	2.117927	0.092508
0.030793	2.116939	0.091659
0.030793	2.116611	0.090811
0.030793	2.116942	0.089963
0.030792	2.117933	0.089114
0.030792	2.119586	0.088263
0.030792	2.121906	0.087409
0.030792	2.124899	0.086552
0.030792	2.128574	0.085690
0.030791	2.132940	0.084822
0.030791	2.138011	0.083948
0.037564	1.075256	0.108402
0.035925	1.082441	0.108402
0.034146	1.090350	0.108402
0.032203	1.099091	0.108402
0.030071	1.108793	0.108402
0.027719	1.119618	0.108402
0.025108	1.131763	0.108402
0.022188	1.145474	0.108402
0.018898	1.161063	0.108402
0.015159	1.178934	0.108402
0.010866	1.199612	0.108402
0.005881	1.223797	0.108402
0.000015	1.252447	0.108402
-0.006996	1.286900	0.108402
-0.015534	1.329090	0.108402
-0.026172	1.381918	0.108402
-0.039810	1.449943	0.108402
-0.057950	1.540766	0.108402
-0.083293	1.668067	0.108402
-0.121242	1.859212	0.108402
-0.172887	2.119577	0.107596
-0.172887	2.117927	0.101988
-0.172887	2.116939	0.096393
-0.172887	2.116611	0.090803
-0.172887	2.116942	0.085214
-0.172887	2.117933	0.079618
-0.172888	2.119586	0.074010
-0.172888	2.121907	0.068384
-0.172888	2.124900	0.062733
-0.172888	2.128575	0.057052
-0.172888	2.132942	0.051333
-0.172888	2.138013	0.045570
0.011862	1.066584	0.123639
0.008804	1.073412	0.123639
0.005483	1.080928	0.123639
0.001857	1.089235	0.123639
-0.002122	1.098456	0.123639
-0.006512	1.108743	0.123640
-0.011386	1.120284	0.123640
-0.016836	1.133314	0.123640
-0.022976	1.148130	0.123640
-0.029956	1.165113	0.123640
-0.037968	1.184764	0.123640
-0.047272	1.207749	0.123640
-0.058220	1.234976	0.123640
-0.071306	1.267718	0.123641
-0.087242	1.307813	0.123641
-0.107097	1.358018	0.123641
-0.132553	1.422666	0.123642
-0.166411	1.508979	0.123642
-0.213711	1.629960	0.123643
-0.284542	1.811614	0.123644
-0.402441	2.114642	0.123647
-0.456770	2.253242	0.115208
-0.456771	2.252145	0.102996
-0.456772	2.251781	0.090798
-0.456772	2.252149	0.078600
-0.456773	2.253250	0.066389
-0.456774	2.255087	0.054151
-0.456774	2.257666	0.041873
-0.456775	2.260992	0.029541
-0.456775	2.265076	0.017142
-0.456776	2.269928	0.004662
-0.456777	2.275563	-0.007914
-0.011494	1.053302	0.137491
-0.015842	1.059584	0.137491
-0.020565	1.066499	0.137491
-0.025720	1.074140	0.137491
-0.031377	1.082623	0.137491
-0.037619	1.092088	0.137491
-0.044549	1.102705	0.137491
-0.052298	1.114693	0.137491
-0.061029	1.128323	0.137490
-0.070952	1.143947	0.137490
-0.082345	1.162025	0.137490
-0.095573	1.183171	0.137490
-0.111140	1.208219	0.137490
-0.129745	1.238341	0.137490
-0.152404	1.275227	0.137489
-0.180635	1.321415	0.137489
-0.216830	1.380889	0.137489
-0.264969	1.460295	0.137488
-0.332223	1.571594	0.137487
-0.432932	1.738711	0.137486
-0.600566	2.017489	0.137484
-0.738346	2.246102	0.128301
-0.738346	2.245012	0.109528
-0.738347	2.244650	0.090775
-0.738348	2.245017	0.072022
-0.738349	2.246113	0.053248
-0.738350	2.247941	0.034434
-0.738350	2.250506	0.015558
-0.738351	2.253816	-0.003400
-0.738352	2.257879	-0.022461
-0.738353	2.262706	-0.041648
-0.738354	2.268312	-0.060982
-0.032579	1.035616	0.149995
-0.038091	1.041170	0.149995
-0.044079	1.047284	0.149995
-0.050615	1.054040	0.149995
-0.057787	1.061541	0.149995
-0.065701	1.069909	0.149995
-0.074488	1.079297	0.149995
-0.084312	1.089896	0.149995
-0.095381	1.101948	0.149995
-0.107963	1.115762	0.149995
-0.122407	1.131747	0.149995
-0.139179	1.150443	0.149995
-0.158915	1.172591	0.149996
-0.182504	1.199224	0.149996
-0.211231	1.231838	0.149996
-0.247025	1.272676	0.149996
-0.292914	1.325263	0.149997
-0.353948	1.395472	0.149997
-0.439216	1.493880	0.149998
-0.566900	1.641643	0.149999
-0.779435	1.888133	0.150001
-1.080455	2.237425	0.144243
-1.080458	2.236342	0.117498
-1.080460	2.235984	0.090781
-1.080462	2.236349	0.064064
-1.080465	2.237438	0.037317
-1.080467	2.239256	0.010513
-1.080469	2.241805	-0.016379
-1.080472	2.245094	-0.043388
-1.080474	2.249132	-0.070545
-1.080476	2.253929	-0.097880
-1.080479	2.259499	-0.125426
-0.050783	1.014035	0.160791
-0.057300	1.018701	0.160791
-0.064380	1.023837	0.160791
-0.072109	1.029514	0.160791
-0.080589	1.035815	0.160791
-0.089946	1.042846	0.160791
-0.100335	1.050733	0.160791
-0.111951	1.059638	0.160791
-0.125039	1.069762	0.160791
-0.139915	1.081369	0.160790
-0.156993	1.094798	0.160790
-0.176823	1.110505	0.160790
-0.200158	1.129112	0.160790
-0.228049	1.151487	0.160789
-0.262015	1.178887	0.160789
-0.304335	1.213195	0.160789
-0.358591	1.257373	0.160788
-0.430753	1.316357	0.160787
-0.531566	1.399029	0.160786
-0.682526	1.523161	0.160785
-0.933798	1.730227	0.160782
-1.202722	1.951680	0.149921
-1.202719	1.950824	0.120326
-1.202716	1.950538	0.090763
-1.202713	1.950821	0.061200
-1.202710	1.951673	0.031605
-1.202707	1.953098	0.001946
-1.202704	1.955098	-0.027810
-1.202701	1.957680	-0.057695
-1.202698	1.960850	-0.087743
-1.202695	1.964617	-0.117989
-1.202692	1.968992	-0.148466
-0.065593	0.989190	0.169573
-0.072928	0.992834	0.169573
-0.080897	0.996846	0.169573
-0.089596	1.001279	0.169573
-0.099140	1.006201	0.169573
-0.109671	1.011691	0.169573
-0.121364	1.017851	0.169573
-0.134438	1.024806	0.169573
-0.149169	1.032713	0.169573
-0.165912	1.041778	0.169573
-0.185134	1.052266	0.169574
-0.207454	1.064533	0.169574
-0.233718	1.079065	0.169574
-0.265110	1.096540	0.169574
-0.303340	1.117940	0.169574
-0.350973	1.144735	0.169574
-0.412042	1.179239	0.169575
-0.493264	1.225307	0.169575
-0.606738	1.289877	0.169575
-0.776658	1.386830	0.169576
-1.059495	1.548563	0.169577
-1.199989	1.628371	0.149804
-1.199987	1.627779	0.120273
-1.199985	1.627582	0.090773
-1.199983	1.627778	0.061274
-1.199981	1.628369	0.031743
-1.199979	1.629355	0.002147
-1.199977	1.630741	-0.027545
-1.199975	1.632529	-0.057366
-1.199973	1.634724	-0.087350
-1.199971	1.637333	-0.117530
-1.199969	1.640363	-0.147943
-0.076564	0.961787	0.176081
-0.084505	0.964304	0.176081
-0.093133	0.967074	0.176081
-0.102550	0.970136	0.176081
-0.112882	0.973535	0.176081
-0.124284	0.977327	0.176081
-0.136942	0.981582	0.176081
-0.151096	0.986385	0.176081
-0.167043	0.991846	0.176081
-0.185170	0.998106	0.176081
-0.205979	1.005350	0.176081
-0.230142	1.013822	0.176080
-0.258575	1.023859	0.176080
-0.292559	1.035928	0.176080
-0.333946	1.050707	0.176080
-0.385513	1.069213	0.176080
-0.451624	1.093043	0.176079
-0.539553	1.124858	0.176079
-0.662394	1.169452	0.176078
-0.846341	1.236410	0.176077
-1.152521	1.348104	0.176075
-1.450492	1.456670	0.161459
-1.450500	1.456221	0.126090
-1.450508	1.456074	0.090759
-1.450516	1.456228	0.055428
-1.450524	1.456683	0.020057
-1.450532	1.457441	-0.015390
-1.450540	1.458504	-0.050954
-1.450548	1.459874	-0.086673
-1.450556	1.461555	-0.122587
-1.450564	1.463553	-0.158738
-1.450572	1.465872	-0.195166
-0.083261	0.933497	0.180056
-0.091572	0.934851	0.180056
-0.100601	0.936340	0.180056
-0.110457	0.937987	0.180056
-0.121270	0.939814	0.180056
-0.133203	0.941853	0.180056
-0.146451	0.944140	0.180056
-0.161264	0.946723	0.180056
-0.177954	0.949659	0.180056
-0.196925	0.953025	0.180056
-0.218704	0.956919	0.180056
-0.243993	0.961475	0.180056
-0.273750	0.966871	0.180056
-0.309318	0.973360	0.180056
-0.352633	0.981306	0.180056
-0.406603	0.991256	0.180056
-0.475794	1.004068	0.180056
-0.567821	1.021174	0.180056
-0.696389	1.045151	0.180056
-0.888912	1.081153	0.180056
-1.209372	1.141209	0.180056
-1.849795	1.261423	0.180056
-2.050653	1.298905	0.140052
-2.050652	1.298797	0.090750
-2.050651	1.298905	0.041447
-2.050650	1.299229	-0.007908
-2.050650	1.299770	-0.057371
-2.050649	1.300529	-0.106995
-2.050648	1.301509	-0.156836
-2.050647	1.302712	-0.206948
-2.050646	1.304141	-0.257389
-2.050645	1.305801	-0.308218
-0.085889	0.902534	0.181612
-0.094345	0.902613	0.181612
-0.103531	0.902700	0.181612
-0.113559	0.902797	0.181611
-0.124562	0.902904	0.181611
-0.136703	0.903024	0.181611
-0.150183	0.903158	0.181611
-0.165254	0.903310	0.181611
-0.182236	0.903482	0.181611
-0.201538	0.903680	0.181611
-0.223697	0.903908	0.181611
-0.249427	0.904176	0.181611
-0.279704	0.904493	0.181611
-0.315893	0.904873	0.181611
-0.359965	0.905340	0.181611
-0.414877	0.905924	0.181611
-0.485277	0.906676	0.181611
-0.578910	0.907680	0.181611
-0.709723	0.909088	0.181611
-0.905607	0.911201	0.181611
-1.231663	0.914726	0.181611
-1.883269	0.921783	0.181610
-2.053748	0.923615	0.140119
-2.053748	0.923609	0.090745
-2.053748	0.923615	0.041371
-2.053748	0.923634	-0.008057
-2.053748	0.923665	-0.057592
-2.053748	0.923709	-0.107289
-2.053748	0.923766	-0.157202
-2.053748	0.923835	-0.207388
-2.053748	0.923918	-0.257904
-2.053747	0.924014	-0.308807
-0.083962	0.872387	0.180466
-0.092312	0.871227	0.180466
-0.101383	0.869949	0.180466
-0.111285	0.868537	0.180466
-0.122149	0.866970	0.180466
-0.134137	0.865221	0.180466
-0.147447	0.863259	0.180466
-0.162329	0.861044	0.180466
-0.179097	0.858526	0.180466
-0.198157	0.855639	0.180466
-0.220037	0.852299	0.180466
-0.245444	0.848392	0.180466
-0.275340	0.843764	0.180466
-0.311073	0.838198	0.180466
-0.354591	0.831383	0.180466
-0.408812	0.822849	0.180466
-0.478326	0.811860	0.180466
-0.570782	0.797188	0.180466
-0.699949	0.776623	0.180466
-0.893369	0.745745	0.180466
-1.215229	0.694251	0.180459
-1.858583	0.591154	0.180458
-2.056640	0.559606	0.140184
-2.056641	0.559698	0.090742
-2.056642	0.559605	0.041301
-2.056643	0.559328	-0.008195
-2.056644	0.558864	-0.057798
-2.056644	0.558214	-0.107562
-2.056645	0.557375	-0.157544
-2.056646	0.556345	-0.207799
-2.056647	0.555120	-0.258383
-2.056648	0.553699	-0.309357
-0.077677	0.843057	0.176742
-0.085680	0.840690	0.176742
-0.094374	0.838084	0.176742
-0.103864	0.835204	0.176742
-0.114277	0.832007	0.176742
-0.125766	0.828441	0.176742
-0.138523	0.824439	0.176742
-0.152786	0.819922	0.176742
-0.168857	0.814785	0.176742
-0.187124	0.808897	0.176742
-0.208095	0.802084	0.176742
-0.232446	0.794115	0.176742
-0.261099	0.784676	0.176743
-0.295347	0.773324	0.176743
-0.337055	0.759423	0.176743
-0.389022	0.742017	0.176743
-0.455647	0.719604	0.176743
-0.544259	0.689680	0.176743
-0.668057	0.647736	0.176743
-0.853436	0.584757	0.176744
-1.162007	0.479698	0.176744
-1.778668	0.269402	0.176745
-3.628831	-0.362232	0.176748
-0.067579	0.816167	0.170756
-0.075024	0.812693	0.170756
-0.083113	0.808869	0.170756
-0.091941	0.804644	0.170756
-0.101628	0.799953	0.170756
-0.112317	0.794720	0.170756
-0.124185	0.788849	0.170756
-0.137454	0.782220	0.170756
-0.152405	0.774684	0.170756
-0.169400	0.766044	0.170756
-0.188909	0.756048	0.170756
-0.211562	0.744355	0.170756
-0.238219	0.730505	0.170756
-0.270081	0.713849	0.170756
-0.308882	0.693452	0.170756
-0.357228	0.667913	0.170756
-0.419210	0.635027	0.170756
-0.501647	0.591119	0.170756
-0.616817	0.529576	0.170756
-0.789279	0.437168	0.170756
-1.076346	0.283017	0.170757
-1.650034	-0.025547	0.170757
-3.371266	-0.952331	0.170757
-0.051438	0.788086	0.161184
-0.057991	0.783458	0.161184
-0.065111	0.778363	0.161184
-0.072883	0.772732	0.161184
-0.081410	0.766481	0.161184
-0.090819	0.759507	0.161184
-0.101266	0.751684	0.161184
-0.112946	0.742851	0.161184
-0.126107	0.732808	0.161184
-0.141066	0.721295	0.161184
-0.158239	0.707974	0.161184
-0.178180	0.692393	0.161184
-0.201645	0.673937	0.161184
-0.229691	0.651741	0.161184
-0.263847	0.624562	0.161184
-0.306404	0.590529	0.161184
-0.360964	0.546706	0.161184
-0.433530	0.488196	0.161184
-0.534910	0.406186	0.161184
-0.686720	0.283046	0.161184
-0.939414	0.077631	0.161184
-1.444409	-0.333550	0.161184
-2.959540	-1.568550	0.161184
-0.033352	0.766371	0.150458
-0.038906	0.760849	0.150458
-0.044941	0.754770	0.150458
-0.051528	0.748053	0.150458
-0.058756	0.740595	0.150458
-0.066731	0.732276	0.150458
-0.075585	0.722942	0.150458
-0.085486	0.712404	0.150458
-0.096641	0.700423	0.150458
-0.109320	0.686688	0.150458
-0.123876	0.670796	0.150458
-0.140779	0.652207	0.150458
-0.160668	0.630188	0.150458
-0.184440	0.603708	0.150458
-0.213391	0.571282	0.150459
-0.249463	0.530679	0.150459
-0.295709	0.478396	0.150459
-0.357218	0.408590	0.150459
-0.443152	0.310746	0.150460
-0.571835	0.163828	0.150460
-0.786038	-0.081259	0.150461
-1.214131	-0.571874	0.150463
-2.498706	-2.045652	0.150469
-0.012365	0.748530	0.138012
-0.016760	0.742274	0.138012
-0.021536	0.735388	0.138012
-0.026748	0.727778	0.138012
-0.032468	0.719329	0.138012
-0.038779	0.709904	0.138012
-0.045786	0.699330	0.138012
-0.053620	0.687393	0.138011
-0.062447	0.673819	0.138011
-0.072480	0.658259	0.138011
-0.083998	0.640256	0.138011
-0.097373	0.619198	0.138011
-0.113111	0.594253	0.138011
-0.131922	0.564256	0.138011
-0.154830	0.527522	0.138011
-0.183373	0.481527	0.138011
-0.219966	0.422300	0.138011
-0.268636	0.343225	0.138010
-0.336629	0.232392	0.138010
-0.438443	0.065977	0.138009
-0.607911	-0.211620	0.138009
-0.946564	-0.767256	0.138007
-1.962467	-2.435875	0.138001
0.010909	0.735058	0.124209
0.007798	0.728248	0.124209
0.004419	0.720752	0.124209
0.000731	0.712467	0.124209
-0.003316	0.703270	0.124209
-0.007782	0.693010	0.124210
-0.012740	0.681498	0.124210
-0.018284	0.668503	0.124210
-0.024530	0.653726	0.124210
-0.031630	0.636787	0.124210
-0.039780	0.617187	0.124210
-0.049245	0.594262	0.124210
-0.060382	0.567106	0.124210
-0.073693	0.534449	0.124210
-0.089904	0.494458	0.124210
-0.110102	0.444383	0.124210
-0.135998	0.379903	0.124210
-0.170441	0.293811	0.124210
-0.218559	0.173141	0.124211
-0.290616	-0.008053	0.124211
-0.410562	-0.310322	0.124212
-0.650281	-0.915414	0.124213
-1.369633	-2.733141	0.124218
0.035809	0.726363	0.109442
0.034074	0.719195	0.109442
0.032189	0.711305	0.109442
0.030131	0.702585	0.109442
0.027874	0.692905	0.109442
0.025382	0.682106	0.109442
0.022617	0.669991	0.109442
0.019524	0.656313	0.109442
0.016040	0.640760	0.109442
0.012079	0.622932	0.109442
0.007532	0.602303	0.109442
0.002252	0.578175	0.109442
-0.003960	0.549593	0.109442
-0.011386	0.515223	0.109442
-0.020429	0.473133	0.109442
-0.031696	0.420431	0.109442
-0.046142	0.352567	0.109442
-0.065354	0.261960	0.109442
-0.092196	0.134962	0.109442
-0.132389	-0.055730	0.109442
-0.199293	-0.373831	0.109442
-0.332996	-1.010576	0.109442
-0.734144	-2.923067	0.109442
0.205362	0.977421	0.008889
0.212991	0.980581	0.008889
0.221279	0.984060	0.008889
0.230326	0.987904	0.008889
0.240252	0.992172	0.008889
0.251205	0.996933	0.008889
0.263366	1.002274	0.008889
0.276963	1.008305	0.008889
0.292283	1.015162	0.008889
0.309697	1.023022	0.008889
0.329688	1.032116	0.008889
0.352901	1.042754	0.008889
0.380216	1.055355	0.008889
0.412864	1.070509	0.008889
0.452624	1.089065	0.008889
0.502164	1.112301	0.008889
0.565676	1.142221	0.008889
0.650149	1.182167	0.008889
0.768164	1.238159	0.008889
0.905298	1.303214	0.012584
0.905299	1.302450	0.032221
0.905300	1.301906	0.051794
0.905301	1.301581	0.071324
0.905302	1.301473	0.090834
0.905303	1.301582	0.110344
0.905304	1.301909	0.129874
0.905305	1.302454	0.149448
0.905306	1.303219	0.169085
0.905307	1.304206	0.188808
0.905307	1.305418	0.208638
0.905308	1.306858	0.228599
0.905309	1.308530	0.248713
0.192192	1.003484	0.016699
0.199094	1.007716	0.016699
0.206592	1.012375	0.016699
0.214776	1.017524	0.016699
0.223756	1.023239	0.016699
0.233664	1.029616	0.016699
0.244666	1.036770	0.016699
0.256967	1.044846	0.016699
0.270826	1.054030	0.016699
0.286580	1.064557	0.016699
0.304665	1.076737	0.016699
0.325665	1.090984	0.016699
0.350376	1.107860	0.016699
0.379911	1.128155	0.016699
0.415881	1.153007	0.016699
0.460697	1.184126	0.016699
0.518154	1.224198	0.016699
0.594574	1.277698	0.016699
0.701337	1.352686	0.016699
0.861209	1.465282	0.016699
0.905350	1.495544	0.032217
0.905352	1.494739	0.051791
0.905353	1.494258	0.071323
0.905354	1.494099	0.090834
0.905356	1.494261	0.110345
0.905357	1.494745	0.129877
0.905358	1.495552	0.149451
0.905360	1.496685	0.169090
0.905361	1.498147	0.188814
0.905362	1.499941	0.208646
0.905364	1.502073	0.228608
0.905365	1.504549	0.248724
0.175956	1.025947	0.026325
0.181961	1.031103	0.026325
0.188484	1.036779	0.026325
0.195605	1.043052	0.026325
0.203419	1.050015	0.026325
0.212040	1.057784	0.026325
0.221612	1.066500	0.026325
0.232314	1.076339	0.026325
0.244373	1.087528	0.026325
0.258080	1.100353	0.026325
0.273815	1.115192	0.026325
0.292087	1.132550	0.026325
0.313587	1.153111	0.026325
0.339285	1.177836	0.026325
0.370581	1.208114	0.026325
0.409575	1.246027	0.026325
0.459566	1.294846	0.026325
0.526056	1.360026	0.026325
0.618947	1.451385	0.026325
0.758044	1.588561	0.026325
0.905413	1.733736	0.032208
0.905415	1.732610	0.051784
0.905417	1.731936	0.071317
0.905419	1.731713	0.090829
0.905421	1.731941	0.110342
0.905423	1.732620	0.129875
0.905425	1.733751	0.149452
0.905427	1.735338	0.169092
0.905429	1.737386	0.188818
0.905431	1.739899	0.208651
0.905433	1.742885	0.228615
0.905435	1.746352	0.248732
0.155523	1.046037	0.038446
0.160399	1.052020	0.038446
0.165697	1.058606	0.038446
0.171479	1.065884	0.038446
0.177824	1.073964	0.038446
0.184825	1.082978	0.038446
0.192599	1.093091	0.038446
0.201290	1.104508	0.038446
0.211083	1.117490	0.038446
0.222214	1.132371	0.038446
0.234992	1.149589	0.038446
0.249830	1.169729	0.038446
0.267290	1.193586	0.038446
0.288159	1.222276	0.038446
0.313574	1.257408	0.038446
0.345240	1.301399	0.038446
0.385838	1.358045	0.038446
0.439835	1.433676	0.038446
0.515272	1.539683	0.038445
0.628236	1.698857	0.038445
0.816271	1.964387	0.038445
0.899621	2.081160	0.052058
0.899624	2.080205	0.071456
0.899626	2.079890	0.090834
0.899629	2.080214	0.110211
0.899631	2.081177	0.129610
0.899634	2.082783	0.149051
0.899636	2.085036	0.168555
0.899639	2.087942	0.188145
0.899641	2.091509	0.207842
0.899644	2.095747	0.227668
0.899646	2.100668	0.247646
0.133088	1.061312	0.051751
0.136725	1.067923	0.051751
0.140677	1.075201	0.051751
0.144990	1.083243	0.051751
0.149723	1.092171	0.051751
0.154945	1.102132	0.051751
0.160744	1.113307	0.051751
0.167226	1.125922	0.051751
0.174531	1.140267	0.051751
0.182833	1.156711	0.051751
0.192365	1.175737	0.051751
0.203432	1.197992	0.051751
0.216455	1.224354	0.051751
0.232021	1.256055	0.051751
0.250978	1.294875	0.051751
0.274597	1.343484	0.051752
0.304878	1.406077	0.051752
0.345153	1.489645	0.051752
0.401418	1.606777	0.051752
0.485672	1.782651	0.051752
0.625911	2.076031	0.051753
0.648002	2.120852	0.063772
0.648001	2.119860	0.077307
0.648001	2.119530	0.090827
0.648000	2.119860	0.104346
0.648000	2.120851	0.117881
0.647999	2.122506	0.131445
0.647998	2.124830	0.145053
0.647998	2.127829	0.158720
0.647997	2.131510	0.172462
0.647997	2.135886	0.186294
0.647996	2.140966	0.200233
0.109489	1.071703	0.065742
0.111823	1.078741	0.065742
0.114359	1.086489	0.065742
0.117127	1.095052	0.065742
0.120163	1.104558	0.065742
0.123514	1.115163	0.065742
0.127235	1.127060	0.065742
0.131395	1.140492	0.065742
0.136082	1.155765	0.065742
0.141410	1.173272	0.065742
0.147526	1.193530	0.065742
0.154628	1.217224	0.065742
0.162985	1.245292	0.065742
0.172974	1.279044	0.065742
0.185139	1.320377	0.065742
0.200295	1.372132	0.065743
0.219727	1.438777	0.065743
0.245573	1.527756	0.065743
0.281680	1.652475	0.065743
0.335751	1.839745	0.065744
0.416425	2.119580	0.066397
0.416425	2.117929	0.074553
0.416424	2.116940	0.082690
0.416424	2.116611	0.090819
0.416424	2.116941	0.098948
0.416424	2.117931	0.107086
0.416424	2.119583	0.115242
0.416423	2.121902	0.123424
0.416423	2.124894	0.131641
0.416423	2.128568	0.139904
0.416423	2.132934	0.148221
0.416422	2.138003	0.156601
0.083980	1.077553	0.080870
0.084906	1.084832	0.080870
0.085911	1.092845	0.080870
0.087008	1.101700	0.080870
0.088212	1.111530	0.080870
0.089541	1.122497	0.080870
0.091016	1.134801	0.080870
0.092665	1.148692	0.080870
0.094523	1.164486	0.080870
0.096635	1.182592	0.080869
0.099060	1.203540	0.080869
0.101875	1.228043	0.080869
0.105188	1.257069	0.080869
0.109148	1.291974	0.080869
0.113970	1.334716	0.080869
0.119979	1.388237	0.080868
0.127682	1.457153	0.080868
0.137927	1.549164	0.080868
0.152240	1.678129	0.080867
0.173673	1.871770	0.080866
0.201088	2.119580	0.081443
0.201089	2.117929	0.084569
0.201089	2.116940	0.087688
0.201089	2.116611	0.090805
0.201089	2.116941	0.093921
0.201089	2.117931	0.097040
0.201089	2.119583	0.100167
0.201089	2.121903	0.103303
0.201089	2.124895	0.106453
0.201090	2.128569	0.109621
0.201090	2.132935	0.112809
0.201090	2.138005	0.116022
0.057992	1.078294	0.096282
0.057481	1.085604	0.096282
0.056927	1.093651	0.096282
0.056322	1.102543	0.096282
0.055659	1.112415	0.096283
0.054926	1.123428	0.096283
0.054113	1.135784	0.096283
0.053204	1.149734	0.096283
0.052180	1.165595	0.096283
0.051015	1.183777	0.096283
0.049679	1.204815	0.096283
0.048127	1.229422	0.096283
0.046300	1.258571	0.096283
0.044117	1.293625	0.096284
0.041459	1.336550	0.096284
0.038146	1.390300	0.096284
0.033899	1.459513	0.096285
0.028251	1.551922	0.096285
0.020359	1.681447	0.096286
0.008542	1.875937	0.096287
-0.006257	2.119577	0.095948
-0.006257	2.117927	0.094232
-0.006257	2.116939	0.092519
-0.006258	2.116611	0.090809
-0.006258	2.116942	0.089098
-0.006258	2.117933	0.087386
-0.006258	2.119586	0.085669
-0.006258	2.121906	0.083948
-0.006259	2.124899	0.082218
-0.006259	2.128574	0.080479
-0.006259	2.132941	0.078729
-0.006259	2.138011	0.076966
0.032265	1.073919	0.111539
0.030335	1.081049	0.111539
0.028237	1.088897	0.111539
0.025947	1.097570	0.111539
0.023435	1.107199	0.111539
0.020663	1.117940	0.111539
0.017585	1.129992	0.111539
0.014144	1.143597	0.111539
0.010267	1.159067	0.111539
0.005860	1.176800	0.111538
0.000800	1.197319	0.111538
-0.005075	1.221318	0.111538
-0.011987	1.249748	0.111538
-0.020250	1.283935	0.111538
-0.030312	1.325800	0.111537
-0.042850	1.378221	0.111537
-0.058923	1.445721	0.111536
-0.080301	1.535841	0.111536
-0.110167	1.662156	0.111535
-0.154888	1.851817	0.111533
-0.229325	2.168188	0.111531
-0.251211	2.259895	0.105623
-0.251211	2.258792	0.098202
-0.251211	2.258425	0.090789
-0.251210	2.258794	0.083376
-0.251210	2.259900	0.075955
-0.251210	2.261746	0.068518
-0.251210	2.264336	0.061057
-0.251210	2.267679	0.053563
-0.251210	2.271782	0.046028
-0.251210	2.276658	0.038444
-0.251210	2.282319	0.030801
0.007551	1.064541	0.126196
0.004256	1.071286	0.126196
0.000675	1.078709	0.126196
-0.003234	1.086914	0.126196
-0.007522	1.096021	0.126196
-0.012254	1.106182	0.126196
-0.017508	1.117582	0.126197
-0.023382	1.130452	0.126197
-0.030001	1.145086	0.126197
-0.037524	1.161861	0.126197
-0.046160	1.181270	0.126197
-0.056189	1.203973	0.126197
-0.067990	1.230866	0.126198
-0.082095	1.263207	0.126198
-0.099273	1.302810	0.126198
-0.120676	1.352400	0.126199
-0.148116	1.416257	0.126200
-0.184612	1.501514	0.126200
-0.235601	1.621017	0.126202
-0.311955	1.800457	0.126203
-0.439055	2.099801	0.126206
-0.505236	2.254724	0.117464
-0.505237	2.253626	0.104124
-0.505238	2.253262	0.090797
-0.505239	2.253631	0.077471
